ply
format ascii 1.0
element vertex 764
property float x
property float y
property float z
end_header
-0.03695277124643326 -0.06361091881990433 0.034115687012672424
-0.03459334373474121 -0.0679878517985344 0.027915170416235924
-0.03499273210763931 -0.06795234233140945 0.025771625339984894
-0.03396725282073021 -0.06070675328373909 0.03254737704992294
-0.03396725282073021 -0.06070675328373909 0.03254737704992294
-0.03301641717553139 -0.0619412325322628 0.03180599585175514
-0.033922672271728516 -0.06012877821922302 0.032746702432632446
-0.035055723041296005 -0.06870735436677933 0.025090651586651802
-0.03437061980366707 -0.0430055633187294 0.03311510011553764
-0.0338105708360672 -0.043546948581933975 0.0323621891438961
-0.032178979367017746 -0.06256508827209473 0.03409940004348755
-0.032178979367017746 -0.06256508827209473 0.03409940004348755
-0.03426804393529892 -0.0589434988796711 0.03265276551246643
-0.03305961191654205 -0.05899903550744057 0.03395538777112961
-0.03469305485486984 -0.059000492095947266 0.03424648568034172
-0.03463570773601532 -0.040987931191921234 0.030689124017953873
-0.03362511843442917 -0.05733010545372963 0.03387221693992615
-0.0325443297624588 -0.057937249541282654 0.03484022617340088
-0.032719697803258896 -0.059463683515787125 0.033357877284288406
-0.03307727724313736 -0.05672546103596687 0.03395763784646988
-0.03233538568019867 -0.04134016111493111 0.032645076513290405
-0.031972069293260574 -0.040204714983701706 0.03269094228744507
-0.032764188945293427 -0.038272760808467865 0.03372076526284218
-0.03128669038414955 -0.03880707547068596 0.03264956548810005
-0.03223086893558502 -0.03914163261651993 0.03397955372929573
-0.029611166566610336 -0.04047790914773941 0.03286084905266762
-0.029611166566610336 -0.04047790914773941 0.03286084905266762
-0.029254324734210968 -0.03852279856801033 0.03438153862953186
-0.030253442004323006 -0.03949688374996185 0.036706287413835526
-0.02899867109954357 -0.04019002243876457 0.03579821437597275
-0.029799390584230423 -0.03785332292318344 0.03519241884350777
-0.02942090667784214 -0.0404655896127224 0.03459242731332779
-0.02965473011136055 -0.0393584743142128 0.036686889827251434
-0.03067595511674881 -0.041008275002241135 0.03477342799305916
-0.029433762654662132 -0.037908390164375305 0.0355173796415329
-0.029433762654662132 -0.037908390164375305 0.0355173796415329
-0.029244057834148407 -0.03643842414021492 0.03517579659819603
-0.029244057834148407 -0.03643842414021492 0.03517579659819603
-0.029244057834148407 -0.03643842414021492 0.03517579659819603
-0.0292800385504961 -0.03654320165514946 0.03590107709169388
-0.027839817106723785 -0.03836582228541374 0.03431613743305206
-0.02645176276564598 -0.03709601238369942 0.03462269902229309
-0.02662638947367668 -0.03561674430966377 0.035564303398132324
-0.02527163363993168 -0.03472595289349556 0.03598242625594139
-0.024986660107970238 -0.035209860652685165 0.03717729076743126
-0.024986660107970238 -0.035209860652685165 0.03717729076743126
-0.024986660107970238 -0.035209860652685165 0.03717729076743126
-0.025591013953089714 -0.03411727398633957 0.036532800644636154
-0.025042342022061348 -0.033655375242233276 0.03519414737820625
-0.025042342022061348 -0.033655375242233276 0.03519414737820625
-0.021915404126048088 -0.0331939198076725 0.036398231983184814
-0.020840533077716827 -0.0332782082259655 0.03619233891367912
-0.021540526300668716 -0.03281133994460106 0.037083279341459274
-0.021540526300668716 -0.03281133994460106 0.037083279341459274
-0.01989302784204483 -0.03294048458337784 0.03564272075891495
-0.02052466757595539 -0.030285032466053963 0.03416134789586067
-0.020321642979979515 -0.031404465436935425 0.0357830673456192
-0.020321642979979515 -0.031404465436935425 0.0357830673456192
-0.02073490619659424 -0.029182199388742447 0.034693025052547455
-0.02073490619659424 -0.029182199388742447 0.034693025052547455
-0.02073490619659424 -0.029182199388742447 0.034693025052547455
-0.019169170409440994 -0.02911478281021118 0.03443124145269394
-0.018811404705047607 -0.029193701222538948 0.03738589584827423
-0.01840359903872013 -0.026992373168468475 0.0352080836892128
-0.017964717000722885 -0.02693730592727661 0.03619313985109329
-0.01786288060247898 -0.028798609972000122 0.03651055693626404
-0.01837298460304737 -0.026774562895298004 0.035703711211681366
-0.017215978354215622 -0.026084380224347115 0.03728223592042923
-0.016047781333327293 -0.02594020776450634 0.03724868223071098
-0.014803925529122353 -0.02366219460964203 0.03647729009389877
-0.014769424684345722 -0.022515812888741493 0.0378786064684391
-0.013514561578631401 -0.022810641676187515 0.037526700645685196
-0.011573116295039654 -0.021750235930085182 0.03762705251574516
-0.011383041739463806 -0.023196004331111908 0.03757571429014206
-0.01206564623862505 -0.020850742235779762 0.038569945842027664
-0.01206564623862505 -0.020850742235779762 0.038569945842027664
-0.012323426082730293 -0.022914595901966095 0.039058685302734375
-0.012182188220322132 0.1563372015953064 -0.007929296232759953
-0.012057043612003326 -0.022720742970705032 0.03835567459464073
-0.012057043612003326 -0.022720742970705032 0.03835567459464073
-0.01042767334729433 0.15691323578357697 -0.008175302296876907
-0.01042767334729433 0.15691323578357697 -0.008175302296876907
-0.010520907118916512 0.15689630806446075 -0.0053426786325871944
-0.011596795171499252 0.15641054511070251 -0.006664185784757137
-0.011652013286948204 0.15567438304424286 -0.005446660332381725
-0.009208234958350658 -0.019024256616830826 0.03917812556028366
-0.010358764789998531 0.15589123964309692 -0.004716473165899515
-0.008269700221717358 0.15489956736564636 -0.0037396748084574938
-0.010040216147899628 -0.019671641290187836 0.03820369765162468
-0.008342400193214417 -0.021257834509015083 0.03887905925512314
-0.009062186814844608 0.1542123705148697 -0.004650727845728397
-0.009397384710609913 -0.02033202350139618 0.038528382778167725
-0.00710714515298605 -0.018517879769206047 0.04027367755770683
-0.007146454881876707 0.15571506321430206 -0.005706592928618193
-0.00892770104110241 -0.019705571234226227 0.0397886261343956
-0.006220129318535328 -0.01766199804842472 0.03996405377984047
-0.006326034665107727 -0.019257063046097755 0.038121748715639114
-0.0066787139512598515 0.1558120995759964 -0.004745004698634148
-0.007140535395592451 -0.018936507403850555 0.03953500837087631
-0.006739296950399876 0.15301011502742767 -0.0039126817137002945
-0.006053640507161617 -0.015780232846736908 0.03746725991368294
-0.006053640507161617 -0.015780232846736908 0.03746725991368294
-0.006053640507161617 -0.015780232846736908 0.03746725991368294
-0.006053640507161617 -0.015780232846736908 0.03746725991368294
-0.006252317223697901 -0.01575157418847084 0.03959278017282486
-0.005901765543967485 0.15483583509922028 -0.004172143526375294
-0.004727186635136604 -0.015908274799585342 0.038921527564525604
-0.004727186635136604 -0.015908274799585342 0.038921527564525604
-0.002307271119207144 -0.016579870134592056 0.038240693509578705
-0.00392313813790679 0.15262170135974884 -0.0028934318106621504
-0.0027976734563708305 -0.015258602797985077 0.03844783455133438
-0.0017781140049919486 -0.013871243223547935 0.040407128632068634
-0.000843556597828865 0.15301921963691711 -0.0036642649210989475
-0.0025283314753323793 -0.012677096761763096 0.03808179125189781
-0.0021131266839802265 0.1537819504737854 -0.0022288125474005938
-0.00016474448784720153 -0.012878412380814552 0.038453150540590286
-0.0005828165449202061 -0.012591718696057796 0.040184810757637024
0.00015223180525936186 0.15208418667316437 -0.0017391580622643232
-0.0008561357390135527 -0.011911516077816486 0.03777863085269928
-0.0014623402385041118 -0.011649751104414463 0.03891027718782425
-0.0014842612436041236 -0.010834296233952045 0.03873821347951889
-0.000295345758786425 0.152179554104805 -0.004148388747125864
0.0003961379989050329 0.15358999371528625 -0.002064080210402608
-0.0004514752945397049 -0.010742460377514362 0.03932713344693184
0.0023316636215895414 0.1515967696905136 -0.0019810458179563284
-2.2858977899886668e-05 -0.01125629898160696 0.0394153855741024
0.0009726519347168505 0.1509803980588913 -0.002551414305344224
0.002510269172489643 0.15080899000167847 -0.002397328382357955
0.0020221793092787266 -0.009154894389212132 0.038399163633584976
0.002866462804377079 -0.010967654176056385 0.03952382504940033
0.0007662982097826898 -0.011201579123735428 0.039138223975896835
0.0033882204443216324 -0.010128621943295002 0.04110908508300781
0.003804072504863143 0.15317247807979584 -0.0031620541121810675
0.003245224943384528 -0.006898257415741682 0.03963569551706314
0.003245224943384528 -0.006898257415741682 0.03963569551706314
0.0023625565227121115 -0.006799567956477404 0.03972741216421127
0.004426463507115841 -0.0064255110919475555 0.03851928561925888
0.004973194096237421 -0.0071395388804376125 0.03909975290298462
0.005217840429395437 -0.005457969382405281 0.04075530171394348
0.004397605545818806 0.1501787006855011 -0.000311442359816283
0.004397605545818806 0.1501787006855011 -0.000311442359816283
0.0041478718630969524 0.15174774825572968 -0.0010653540957719088
0.0041478718630969524 0.15174774825572968 -0.0010653540957719088
0.005346869118511677 0.05292835459113121 0.007112657185643911
0.005346869118511677 0.05292835459113121 0.007112657185643911
0.005906549282371998 0.05329485237598419 0.009155146777629852
0.006569730117917061 0.05526672303676605 0.007315279450267553
0.0041941190138459206 0.051943328231573105 0.007332597393542528
0.005429096519947052 0.0546574741601944 0.0072379638440907
0.005429096519947052 0.0546574741601944 0.0072379638440907
0.006734368856996298 0.05308923497796059 0.007678492460399866
0.007087602745741606 0.053127747029066086 0.00941027794033289
0.007189346011728048 0.05465339869260788 0.007234840653836727
0.007189346011728048 0.05465339869260788 0.007234840653836727
0.006390477064996958 -0.00487499451264739 0.04049810767173767
0.0058196051977574825 0.05422308295965195 0.005477777682244778
0.008534113876521587 0.05046948045492172 0.00823424942791462
0.006632533390074968 0.05698055773973465 0.005569572560489178
0.007558488752692938 0.05597630888223648 0.0037379120476543903
0.007558488752692938 0.05597630888223648 0.0037379120476543903
0.009130328893661499 0.05086122453212738 0.010853637009859085
0.00660238042473793 0.05558000132441521 0.005980309098958969
0.00660238042473793 0.05558000132441521 0.005980309098958969
0.006722159683704376 0.05673036724328995 0.005382788833230734
0.006306770257651806 0.0813535824418068 -0.0027758837677538395
0.009172598831355572 0.05125223845243454 0.011025416664779186
0.008131025359034538 0.04989679157733917 0.011734182946383953
0.008836568333208561 0.15064989030361176 -4.213886859361082e-05
0.008445504121482372 0.15052182972431183 -0.0001492723386036232
0.008540588431060314 0.055216819047927856 0.003927374724298716
0.007189716212451458 0.08158932626247406 -0.0025903673376888037
0.007216354366391897 0.08131107687950134 -0.00349966948851943
0.007216354366391897 0.08131107687950134 -0.00349966948851943
0.009326322935521603 0.04924746975302696 0.012172290123999119
0.009652456268668175 0.05603775754570961 0.004580968525260687
0.009191837161779404 0.04953500255942345 0.01001244317740202
0.010354761965572834 0.05841749161481857 0.00251348246820271
0.009802944026887417 0.08113991469144821 -0.00502745108678937
0.00826264452189207 0.07940316945314407 -0.0035350413527339697
0.008572036400437355 0.05872815474867821 0.0037305057048797607
0.010893075726926327 0.14822937548160553 -0.0020394085440784693
0.010692734271287918 -2.2326606995193288e-05 0.03991561010479927
0.008649731054902077 0.04745086655020714 0.011372445151209831
0.0114490557461977 0.0009166958043351769 0.03956678509712219
0.009041720069944859 0.07824122905731201 -0.006845728028565645
0.011552464216947556 0.08039771020412445 -0.005615238565951586
0.011776854284107685 -0.0005480145337060094 0.03790319710969925
0.011776854284107685 -0.0005480145337060094 0.03790319710969925
0.011971831321716309 0.048822302371263504 0.012146246619522572
0.01098492182791233 0.14815862476825714 -0.001989331329241395
0.01011862512677908 0.05914485454559326 0.0037913743872195482
0.01011862512677908 0.05914485454559326 0.0037913743872195482
0.011448778212070465 0.05951308086514473 0.0032759536989033222
0.011448778212070465 0.05951308086514473 0.0032759536989033222
0.011443691328167915 0.05948398634791374 0.004293022211641073
0.011777501553297043 0.00025153072783723474 0.039266232401132584
0.010519308038055897 0.05926036462187767 0.0029241216834634542
0.01104744803160429 0.1480666995048523 -0.001388087053783238
0.010083847679197788 0.060837797820568085 0.0012476760894060135
0.0122149046510458 0.0674414113163948 0.0006286981515586376
0.010560098104178905 0.0692417100071907 0.000491087615955621
0.011076213791966438 0.0698823630809784 0.00014409572759177536
0.010665078647434711 0.06172362342476845 0.003948059864342213
0.01038361992686987 0.06581639498472214 0.00046845563338138163
0.012219899334013462 0.07875394076108932 -0.00632092822343111
0.012951432727277279 0.07783183455467224 -0.004551177844405174
0.011944453231990337 0.06780000776052475 0.0002033555938396603
0.011081300675868988 0.06677090376615524 -0.00030645777587778866
0.012070337310433388 0.06490878760814667 0.0006931587704457343
0.011633765883743763 0.00038424620288424194 0.03882313147187233
0.011633765883743763 0.00038424620288424194 0.03882313147187233
0.01313808560371399 0.06311649829149246 0.001905644778162241
0.012515694834291935 0.0635925680398941 0.002154781250283122
0.010962446220219135 0.0782545804977417 -0.007215098477900028
0.010962446220219135 0.0782545804977417 -0.007215098477900028
0.01151056494563818 0.0703514814376831 0.0015739036025479436
0.013504360802471638 0.0864795669913292 -0.0037766301538795233
0.013033382594585419 0.06994584947824478 -0.0003516455180943012
0.011857971549034119 0.07754135876893997 -0.008941463194787502
0.01327442191541195 0.04636814445257187 0.011938201263546944
0.01197164598852396 0.07124709337949753 0.0009746187715791166
0.013392721302807331 0.08700849860906601 -0.0028568129055202007
0.012901486828923225 0.0019838176667690277 0.039785631000995636
0.011054477654397488 0.07257379591464996 -0.00032677967101335526
0.011261756531894207 0.0454634390771389 0.014680132269859314
0.01347920298576355 0.07411623746156693 -9.320006211055443e-05
0.012444381602108479 0.0017848090501502156 0.037844181060791016
0.011968038976192474 0.07993506640195847 -0.007800718769431114
0.011968038976192474 0.07993506640195847 -0.007800718769431114
0.011779999360442162 0.07577621936798096 -0.00825758557766676
0.012875311076641083 0.07191698253154755 -0.00178265362046659
0.013398363254964352 0.08084143698215485 -0.00772062037140131
0.012900561094284058 0.07622215896844864 -0.008304174058139324
0.012900561094284058 0.07622215896844864 -0.008304174058139324
0.01273222267627716 0.08847767114639282 -0.0029388749971985817
0.013111632317304611 0.0018962902249768376 0.03819125145673752
0.013421579264104366 0.068846695125103 0.0013837681617587805
0.01312208455055952 0.07407599687576294 -0.001583533943630755
0.01312208455055952 0.07407599687576294 -0.001583533943630755
0.01330614648759365 0.0449945442378521 0.01376067753881216
0.012314983643591404 0.07755380123853683 -0.0077530755661427975
0.012283905409276485 0.07051321119070053 -0.0009768004529178143
0.014557218179106712 0.07543829828500748 -0.002564703579992056
0.014557218179106712 0.07543829828500748 -0.002564703579992056
0.012980198487639427 0.07397894561290741 -0.0014786883257329464
0.012980198487639427 0.07397894561290741 -0.0014786883257329464
0.012980198487639427 0.07397894561290741 -0.0014786883257329464
0.012129347771406174 0.07469259202480316 -0.0007564592524431646
0.01205461286008358 0.07430950552225113 -0.0028431180398911238
0.012014285661280155 0.07774101197719574 -0.0011872962350025773
0.012943941168487072 0.07519419491291046 -0.011299684643745422
0.013433973304927349 0.07870554178953171 -0.008310024626553059
0.01315908133983612 0.07464838027954102 -0.00749365147203207
0.013225861825048923 0.08817751705646515 -0.0026436783373355865
0.013651333749294281 0.004821823909878731 0.03828401863574982
0.012201585806906223 0.07637936621904373 -0.010980716906487942
0.012305456213653088 0.08900097757577896 -0.003347445745021105
0.01326165720820427 0.08225162327289581 -0.0019813471008092165
0.012235901318490505 0.003363757859915495 0.03734203428030014
0.01529494859278202 0.07674400508403778 -0.008257128298282623
0.013933162204921246 0.07709984481334686 -0.009528661146759987
0.012889277189970016 0.1464974284172058 -0.0011928428430110216
0.014483500272035599 0.046499621123075485 0.01488504558801651
0.012867356650531292 0.08974988013505936 -0.004943000618368387
0.012913510203361511 0.08069358766078949 -0.00464168144389987
0.015040775761008263 0.004672342445701361 0.03918692469596863
0.015040775761008263 0.004672342445701361 0.03918692469596863
0.015600455924868584 0.07809650897979736 0.00019600579980760813
0.014077083207666874 0.07937534898519516 -0.005264521110802889
0.014952628873288631 0.04415997490286827 0.013007272966206074
0.013331119902431965 0.07624015212059021 -0.011389989405870438
0.013331119902431965 0.07624015212059021 -0.011389989405870438
0.014257538132369518 0.0038536968640983105 0.038696691393852234
0.015437851659953594 0.07834132015705109 -0.009331773035228252
0.013861849904060364 0.0804252177476883 -0.0065591479651629925
0.013007206842303276 0.08121365308761597 -0.0015360844554379582
0.015048637986183167 0.09199780225753784 -0.004675491247326136
0.01606292463839054 0.07646442204713821 -0.00724073639139533
0.015255453996360302 0.07836747169494629 -6.459499127231538e-05
0.0160837359726429 0.004153435118496418 0.0397416315972805
0.014111767522990704 0.04356661066412926 0.01462112832814455
0.014223407953977585 0.07726278901100159 -0.006819807458668947
0.016191860660910606 0.07398726046085358 -0.011163705959916115
0.014426247216761112 0.0787208154797554 -0.006098736543208361
0.014426247216761112 0.0787208154797554 -0.006098736543208361
0.015693966299295425 0.0435849130153656 0.015979664400219917
0.015218733809888363 0.09368208050727844 -0.004221288021653891
0.01397885475307703 0.07738626003265381 -0.0007554669864475727
0.01515139825642109 0.07584040611982346 -0.013111503794789314
0.01515139825642109 0.07584040611982346 -0.013111503794789314
0.017242591828107834 0.07779639959335327 -0.010347182862460613
0.01559620164334774 0.14786063134670258 -0.0002825585543178022
0.016152366995811462 0.044491469860076904 0.015666795894503593
0.015892552211880684 0.0790962353348732 0.0006664161919616163
0.015892552211880684 0.0790962353348732 0.0006664161919616163
0.015892552211880684 0.0790962353348732 0.0006664161919616163
0.01538661029189825 0.07722408324480057 -0.006666035391390324
0.01538661029189825 0.07722408324480057 -0.006666035391390324
0.0160011388361454 0.08049746602773666 4.324778274167329e-05
0.015911512076854706 0.004914484452456236 0.039576832205057144
0.014204076491296291 0.09503388404846191 -0.004685421008616686
0.01521503459662199 0.14573273062705994 -0.00033463400905020535
0.01521503459662199 0.14573273062705994 -0.00033463400905020535
0.01521503459662199 0.14573273062705994 -0.00033463400905020535
0.01680842600762844 0.09571927785873413 -0.004354936070740223
0.01636260561645031 0.09383482486009598 -0.0038891988806426525
0.014452422969043255 0.07955227792263031 -0.0003758098173420876
0.016943836584687233 0.07861646264791489 -0.008150216192007065
0.01761968806385994 0.07626403123140335 -0.007292282301932573
0.015656692907214165 0.09690336138010025 -0.002407028106972575
0.015324732288718224 0.1461348831653595 0.0005337622715160251
0.018015839159488678 0.07859344035387039 -0.007025911007076502
0.016360478475689888 0.0057799420319497585 0.038929782807826996
0.017850644886493683 0.0971030443906784 -0.0019872968550771475
0.01568249799311161 0.076206274330616 -0.007915615104138851
0.01568249799311161 0.076206274330616 -0.007915615104138851
0.01838054321706295 0.07881154119968414 -0.0053830211982131
0.01838054321706295 0.07881154119968414 -0.0053830211982131
0.016047941520810127 0.09603217244148254 -0.004000243730843067
0.018483581021428108 0.07737956196069717 -0.008339745923876762
0.01779542677104473 0.07595332711935043 -0.012000479735434055
0.017471883445978165 0.04072573781013489 0.017671914771199226
0.018408752977848053 0.006375706754624844 0.03746723383665085
0.018160870298743248 0.03978029265999794 0.018588131293654442
0.01775556243956089 0.06861694902181625 -0.008512826636433601
0.01775556243956089 0.06861694902181625 -0.008512826636433601
0.018978793174028397 0.006528537720441818 0.03690474107861519
0.018565436825156212 0.09488307684659958 -0.002873613266274333
0.01818908005952835 0.07536877691745758 -0.01096030417829752
0.016422078013420105 0.071926549077034 -0.00907067209482193
0.016422078013420105 0.071926549077034 -0.00907067209482193
0.018048767000436783 0.009556051343679428 0.03760555759072304
0.018377767875790596 0.07081139832735062 -0.009608686901628971
0.018377767875790596 0.07081139832735062 -0.009608686901628971
0.01937928982079029 0.03844516724348068 0.019505050033330917
0.01937928982079029 0.03844516724348068 0.019505050033330917
0.01891413889825344 0.07143128663301468 -0.008165414445102215
0.016791868954896927 0.038511279970407486 0.019155291840434074
0.019269131124019623 0.07017123699188232 -0.00945056602358818
0.01751868426799774 0.06723231077194214 -0.008102077059447765
0.01771578937768936 0.07186096906661987 -0.011961983516812325
0.01932453364133835 0.14583346247673035 -0.003111237194389105
0.018512530252337456 0.03760894760489464 0.01855161041021347
0.018041182309389114 0.14436212182044983 -0.0009905139449983835
0.018634160980582237 0.06935270130634308 -0.008616051636636257
0.018255583941936493 0.06737759709358215 -0.008530204184353352
0.01860816963016987 0.06897326558828354 -0.008642955683171749
0.020341873168945312 0.06808608025312424 -0.0105212964117527
0.020341873168945312 0.06808608025312424 -0.0105212964117527
0.01871851459145546 0.07213879376649857 -0.012418859638273716
0.020814239978790283 0.07028495520353317 -0.012506206519901752
0.020814239978790283 0.07028495520353317 -0.012506206519901752
0.020814239978790283 0.07028495520353317 -0.012506206519901752
0.017786270007491112 0.07210274785757065 -0.010731793008744717
0.017786270007491112 0.07210274785757065 -0.010731793008744717
0.017786270007491112 0.07210274785757065 -0.010731793008744717
0.018338365480303764 0.07166671752929688 -0.009901820681989193
0.018338365480303764 0.07166671752929688 -0.009901820681989193
0.018702976405620575 0.038357701152563095 0.02014082483947277
0.018702976405620575 0.038357701152563095 0.02014082483947277
0.020390154793858528 0.037334464490413666 0.020076580345630646
0.02000010944902897 0.09592486917972565 -0.003472729353234172
0.018632033839821815 0.06792174279689789 -0.01088244654238224
0.017992623150348663 0.06939980387687683 -0.009106933139264584
0.02024262771010399 0.01261745486408472 0.036404334008693695
0.02024262771010399 0.01261745486408472 0.036404334008693695
0.0205179825425148 0.011125258170068264 0.037126075476408005
0.020605944097042084 0.09932439774274826 -0.004760609939694405
0.021039461717009544 0.07160121202468872 -0.009233198128640652
0.021039461717009544 0.07160121202468872 -0.009233198128640652
0.019455505535006523 0.06846161931753159 -0.011332188732922077
0.019455505535006523 0.06846161931753159 -0.011332188732922077
0.01847692020237446 0.0706886425614357 -0.01496845856308937
0.019179873168468475 0.06841697543859482 -0.013423708267509937
0.020133115351200104 0.013022322207689285 0.03578629717230797
0.019257476553320885 0.14495982229709625 -0.0011528019094839692
0.019451158121228218 0.07106742262840271 -0.015804925933480263
0.01938687451183796 0.07224152237176895 -0.014392953366041183
0.01938687451183796 0.07224152237176895 -0.014392953366041183
0.021010233089327812 0.07028762996196747 -0.014209486544132233
0.019051676616072655 0.03596371412277222 0.020911619067192078
0.021187175065279007 0.06963011622428894 -0.013974501751363277
0.02049698494374752 0.07394575327634811 -0.01239886786788702
0.02049698494374752 0.07394575327634811 -0.01239886786788702
0.019690625369548798 0.07203873991966248 -0.01117652840912342
0.018454259261488914 0.07067010551691055 -0.014319383539259434
0.018454259261488914 0.07067010551691055 -0.014319383539259434
0.02077113837003708 0.07229290157556534 -0.011953833512961864
0.02005218341946602 0.07038076967000961 -0.012198777869343758
0.019170254468917847 0.06774198263883591 -0.005946663208305836
0.019576210528612137 0.03629515320062637 0.022793304175138474
0.020432516932487488 0.07395666837692261 -0.009311990812420845
0.020625552162528038 0.14358437061309814 -0.0013253872748464346
0.021145552396774292 0.06876848638057709 -0.015805121511220932
0.0204376969486475 0.0695253536105156 -0.006765649188309908
0.0192521121352911 0.07279505580663681 -0.01025070995092392
0.02060261368751526 0.06725622713565826 -0.01566206105053425
0.020703062415122986 0.07504388689994812 -0.011620271019637585
0.021142499521374702 0.0669335126876831 -0.01546905655413866
0.021142499521374702 0.0669335126876831 -0.01546905655413866
0.0202008206397295 0.06971481442451477 -0.00923236832022667
0.021214645355939865 0.0708094909787178 -0.011281648650765419
0.02161986008286476 0.06485261768102646 -0.015374161303043365
0.018587728962302208 0.06728709489107132 -0.009970245882868767
0.020601412281394005 0.06794711202383041 -0.012912385165691376
0.020876672118902206 0.0689687505364418 -0.00850274134427309
0.020593827590346336 0.06875879317522049 -0.016491014510393143
0.021115122362971306 0.06712451577186584 -0.0072118015959858894
0.019353484734892845 0.07020599395036697 -0.012137730605900288
0.02049439586699009 0.07232488691806793 -0.012502695433795452
0.019493427127599716 0.0667354017496109 -0.015374203212559223
0.019493427127599716 0.0667354017496109 -0.015374203212559223
0.02006198652088642 0.07465631514787674 -0.00959610566496849
0.020768731832504272 0.06716585904359818 -0.0105453385040164
0.020768731832504272 0.06716585904359818 -0.0105453385040164
0.021644463762640953 0.06742965430021286 -0.015264149755239487
0.021644463762640953 0.06742965430021286 -0.015264149755239487
0.021268384531140327 0.06815680861473083 -0.007154632825404406
0.021999362856149673 0.033495739102363586 0.02496313862502575
0.020564137026667595 0.0996875911951065 -0.0034973605070263147
0.020762257277965546 0.012666274793446064 0.036804407835006714
0.02138344570994377 0.09942460805177689 -0.0017238935688510537
0.021812710911035538 0.10165955871343613 -0.0027200242038816214
0.020001865923404694 0.06718821078538895 -0.011085351929068565
0.01947011984884739 0.013749321922659874 0.037227313965559006
0.020479412749409676 0.06797812134027481 -0.00963184330612421
0.01973113790154457 0.09901668131351471 -0.0035109452437609434
0.021741952747106552 0.035549893975257874 0.023596372455358505
0.021301958709955215 0.0694165974855423 -0.008404565043747425
0.021301958709955215 0.0694165974855423 -0.008404565043747425
0.02097027748823166 0.06451549381017685 -0.013784127309918404
0.01978820562362671 0.07260414212942123 -0.010421318002045155
0.021281149238348007 0.06430498510599136 -0.013030003756284714
0.020188333466649055 0.034772440791130066 0.024080751463770866
0.02173529379069805 0.0638931468129158 -0.014325356110930443
0.022281192243099213 0.14406974613666534 -0.0005155933904461563
0.02227998897433281 0.033890414983034134 0.025558505207300186
0.02227998897433281 0.033890414983034134 0.025558505207300186
0.01948852650821209 0.06783550977706909 -0.006706325337290764
0.021644094958901405 0.09975734353065491 -0.003345237346366048
0.020431222394108772 0.0331069752573967 0.02532173879444599
0.019954416900873184 0.0326671227812767 0.02572641149163246
0.021630126982927322 0.06444746255874634 -0.014690684154629707
0.022045888006687164 0.06983271986246109 -0.0068251024931669235
0.021605709567666054 0.1425483375787735 -0.0013604318955913186
0.021605709567666054 0.1425483375787735 -0.0013604318955913186
0.020797498524188995 0.10169503837823868 -0.0023635507095605135
0.021980032324790955 0.07333029806613922 -0.0048743425868451595
0.021980032324790955 0.07333029806613922 -0.0048743425868451595
0.021980032324790955 0.07333029806613922 -0.0048743425868451595
0.022898124530911446 0.01474185474216938 0.03447415679693222
0.022736908867955208 0.06946294009685516 -0.010062114335596561
0.02241734229028225 0.01978868804872036 0.031805284321308136
0.02241734229028225 0.01978868804872036 0.031805284321308136
0.02241734229028225 0.01978868804872036 0.031805284321308136
0.02237146534025669 0.07687227427959442 -0.0062681566923856735
0.02246645651757717 0.01892760768532753 0.03247643634676933
0.020219504833221436 0.02347746677696705 0.02979852259159088
0.021713463589549065 0.02024291642010212 0.03410591930150986
0.020909970626235008 0.023071730509400368 0.030929310247302055
0.021269217133522034 0.07763147354125977 -0.0076047820039093494
0.021269217133522034 0.07763147354125977 -0.0076047820039093494
0.021269217133522034 0.07763147354125977 -0.0076047820039093494
0.021072573959827423 0.07414186745882034 -0.00762528833001852
0.022229209542274475 0.023472022265195847 0.03216198459267616
0.020814239978790283 0.016124160960316658 0.034940339624881744
0.020540179684758186 0.020968174561858177 0.03352447226643562
0.02268705517053604 0.07380779087543488 -0.007427138276398182
0.021330632269382477 0.021783046424388885 0.033149491995573044
0.021659448742866516 0.07747898995876312 -0.005803861189633608
0.020552482455968857 0.07329420000314713 -0.009123225696384907
0.022684095427393913 0.06975904107093811 -0.007366190664470196
0.02309439703822136 0.10220304131507874 -0.0024863295257091522
0.02309439703822136 0.10220304131507874 -0.0024863295257091522
0.02172807790338993 0.020118897780776024 0.03420494496822357
0.02172807790338993 0.020118897780776024 0.03420494496822357
0.021715406328439713 0.015797380357980728 0.03652475029230118
0.02058781497180462 0.024491427466273308 0.030930904671549797
0.02058781497180462 0.024491427466273308 0.030930904671549797
0.022365452721714973 0.07691386342048645 -0.0072741396725177765
0.022576430812478065 0.07178555428981781 -0.013880803249776363
0.022328641265630722 0.026226339861750603 0.028796764090657234
0.02185877226293087 0.01813357323408127 0.0346396304666996
0.02101985365152359 0.07486316561698914 -0.006747183855623007
0.021783389151096344 0.07527019083499908 -0.007428180426359177
0.0209662988781929 0.01823091134428978 0.03476748615503311
0.0217893086373806 0.07433243095874786 -0.00641270587220788
0.021077198907732964 0.0261341854929924 0.02819834277033806
0.022112296894192696 0.025480596348643303 0.03090217337012291
0.02190668322145939 0.028933171182870865 0.0262040663510561
0.02182972989976406 0.07314441353082657 -0.008112987503409386
0.02182972989976406 0.07314441353082657 -0.008112987503409386
0.022543227300047874 0.02800131030380726 0.02813771553337574
0.021976053714752197 0.07223828136920929 -0.00780703779309988
0.020930226892232895 0.01696246676146984 0.03406572341918945
0.022999683395028114 0.028410425409674644 0.02689271792769432
0.02183777652680874 0.07508273422718048 -0.006639192346483469
0.022349821403622627 0.028509514406323433 0.027434583753347397
0.021324990317225456 0.1040642112493515 -0.0031874252017587423
0.021324990317225456 0.1040642112493515 -0.0031874252017587423
0.02088046446442604 0.028166966512799263 0.029506798833608627
0.021074887365102768 0.07465218007564545 -0.00522028049454093
0.021074887365102768 0.07465218007564545 -0.00522028049454093
0.021868206560611725 0.06944037973880768 -0.011834169737994671
0.023115023970603943 0.06828948855400085 -0.007697104476392269
0.023441895842552185 0.07016663253307343 -0.013860534876585007
0.021740471944212914 0.06990936398506165 -0.007623434066772461
0.02397826872766018 0.07615060359239578 -0.006709917914122343
0.02397826872766018 0.07615060359239578 -0.006709917914122343
0.022561632096767426 0.06973586976528168 -0.007610122673213482
0.02130168117582798 0.06952488422393799 -0.006700784433633089
0.02287241257727146 0.06742019951343536 -0.00689860712736845
0.021752312779426575 0.0704883337020874 -0.006147989071905613
0.02270333282649517 0.06760179996490479 -0.00954560749232769
0.022680949419736862 0.07054546475410461 -0.015657298266887665
0.021420074626803398 0.06699712574481964 -0.005498429760336876
0.022997740656137466 0.06723446398973465 -0.00817666295915842
0.022997740656137466 0.06723446398973465 -0.00817666295915842
0.023063411936163902 0.10390862077474594 -0.0040946220979094505
0.023063411936163902 0.10390862077474594 -0.0040946220979094505
0.022755499929189682 0.06779459863901138 -0.005235573742538691
0.022515755146741867 0.07009056955575943 -0.013418619520962238
0.022515755146741867 0.07009056955575943 -0.013418619520962238
0.022515755146741867 0.07009056955575943 -0.013418619520962238
0.021765537559986115 0.07147334516048431 -0.005404703319072723
0.023192718625068665 0.10376986116170883 -0.0048117004334926605
0.02415909245610237 0.07118646055459976 -0.005068430211395025
0.023739634081721306 0.07005053758621216 -0.004103275015950203
0.022328732535243034 0.06980744749307632 -0.0037197936326265335
0.02281266078352928 0.07192255556583405 -0.0030500018037855625
0.0233358982950449 0.07159698009490967 -0.006692501716315746
0.0244991946965456 0.07023119181394577 -0.00413623359054327
0.023011429235339165 0.07497695833444595 -0.005812609102576971
0.022450918331742287 0.07161342352628708 -0.00406302185729146
0.024022109806537628 0.143230140209198 0.0004281508445274085
0.02360302023589611 0.07516960799694061 -0.0035201574210077524
0.024135969579219818 0.07209020107984543 -0.0013673028443008661
0.024812471121549606 0.07335218787193298 -0.002414742950350046
0.024812471121549606 0.07335218787193298 -0.002414742950350046
0.02429746463894844 0.07365364581346512 -0.0028288117609918118
0.023363832384347916 0.10430886596441269 -0.003730339463800192
0.024931788444519043 0.07021595537662506 -0.015213885344564915
0.022847900167107582 0.06793950498104095 -0.014318013563752174
0.02447163127362728 0.06746067106723785 -0.01698421500623226
0.023700786754488945 0.10451424866914749 -0.004584335722029209
0.023414241150021553 0.07258827984333038 -0.0011393853928893805
0.024470152333378792 0.07530524581670761 -0.0055862790904939175
0.024470152333378792 0.07530524581670761 -0.0055862790904939175
0.02438977360725403 0.07438994199037552 -0.0021845363080501556
0.02438977360725403 0.07438994199037552 -0.0021845363080501556
0.023073123767971992 0.10514531284570694 -0.0029271261300891638
0.023817328736186028 0.10729119181632996 -0.0022134699393063784
0.024906352162361145 0.07588036358356476 -0.0035392020363360643
0.025005875155329704 0.07494509220123291 -0.0015946849016472697
0.025005875155329704 0.07494509220123291 -0.0015946849016472697
0.02428516373038292 0.1441493183374405 -0.0014866397250443697
0.02428516373038292 0.1441493183374405 -0.0014866397250443697
0.025047313421964645 0.10826469957828522 -0.004945636261254549
0.024841513484716415 0.10896989703178406 -0.004421432502567768
0.024102764204144478 0.1091340184211731 -0.004943083040416241
0.025449013337492943 0.11102447658777237 -0.004394989926367998
0.025449013337492943 0.11102447658777237 -0.004394989926367998
0.024894142523407936 0.11092963069677353 -0.004172907676547766
0.02512926235795021 0.1432991474866867 -9.347943705506623e-05
0.02512926235795021 0.1432991474866867 -9.347943705506623e-05
0.025782452896237373 0.11040087789297104 -0.0038948056753724813
0.02658705785870552 0.1430804580450058 -0.0013856878504157066
0.0278187058866024 0.11252612620592117 -0.0028346162289381027
0.0278187058866024 0.11252612620592117 -0.0028346162289381027
0.025958746671676636 0.11539287865161896 -0.004813262261450291
0.026333162561058998 0.11484202742576599 -0.003970221616327763
0.028540341183543205 0.11263466626405716 -0.005560273304581642
0.02636645920574665 0.11440027505159378 -0.005470775067806244
0.027697445824742317 0.14122101664543152 -0.00016368634533137083
0.027485819533467293 0.11596853286027908 -0.005790302529931068
0.027128886431455612 0.14202561974525452 0.0005067663732916117
0.028416123241186142 0.1419658064842224 0.0012391556520015001
0.027525315061211586 0.11670256406068802 -0.005012789741158485
0.029716771095991135 0.11792606115341187 -0.00782311987131834
0.02864476665854454 0.11863813549280167 -0.007785926107317209
0.028469769284129143 0.1408633291721344 -0.001307280850596726
0.03130248561501503 0.11948319524526596 -0.006808489095419645
0.03130248561501503 0.11948319524526596 -0.006808489095419645
0.030289122834801674 0.11990942806005478 -0.006518486421555281
0.030060848221182823 0.11884310096502304 -0.0065142251551151276
0.030134009197354317 0.12074899673461914 -0.0058347852900624275
0.029748311266303062 0.11990213394165039 -0.007590428926050663
0.03155110776424408 0.1392475664615631 -0.001220737467519939
0.030540427193045616 0.14213477075099945 -8.300816989503801e-05
0.03302999213337898 0.14034079015254974 6.801013660151511e-05
0.03240112587809563 0.12476999312639236 -0.005651505663990974
0.03339191898703575 0.12445701658725739 -0.007632764987647533
0.03269599750638008 0.14053960144519806 -0.0004431374545674771
0.0338793620467186 0.12437527626752853 -0.005775670520961285
0.03226303309202194 0.14117026329040527 -0.0019344108877703547
0.03199489414691925 0.139160618185997 -0.001153113436885178
0.03336592763662338 0.12760129570960999 -0.0056200954131782055
0.03336592763662338 0.12760129570960999 -0.0056200954131782055
0.032224372029304504 0.12640617787837982 -0.004416963551193476
0.03386308252811432 0.1288345903158188 -0.005688677076250315
0.03230123221874237 0.12753555178642273 -0.006290390156209469
0.03452487662434578 0.12955456972122192 -0.004640826024115086
0.03243636712431908 0.1293402463197708 -0.005209352355450392
0.03463272377848625 0.13002365827560425 -0.005823484156280756
0.03463272377848625 0.13002365827560425 -0.005823484156280756
0.033855315297842026 0.13039493560791016 -0.0064690373837947845
0.03414130583405495 0.14075519144535065 -0.0005847892025485635
0.03683953359723091 0.1395237296819687 -0.003652624785900116
0.03503960371017456 0.13139313459396362 -0.005238721612840891
0.03744472190737724 0.1327849179506302 -0.005188799928873777
0.03532180190086365 0.13784445822238922 -0.0032509327866137028
0.03811446949839592 0.1393459588289261 -0.0027286300901323557
0.03815155848860741 0.1328439861536026 -0.0055910092778503895
0.038798924535512924 0.13860762119293213 -0.003221595659852028
0.03913005068898201 0.1381324827671051 -0.003582308068871498
0.039890535175800323 0.1367499828338623 -0.004332728683948517
0.03987416252493858 0.13452371954917908 -0.00317829055711627
0.03824266418814659 0.13432841002941132 -0.00218045967631042
0.04105318337678909 0.13532991707324982 -0.005302616860717535
-0.050755321979522705 -0.03330971673130989 0.09348200261592865
-0.049099959433078766 -0.026754489168524742 0.09705018252134323
-0.0489615872502327 -0.027277570217847824 0.09957122057676315
-0.047810133546590805 -0.02043493650853634 0.08205103129148483
-0.04923851415514946 -0.025066757574677467 0.08760540932416916
-0.048458099365234375 -0.0345115102827549 0.09276050329208374
-0.04589255154132843 -0.029612617567181587 0.09362379461526871
-0.04721909761428833 -0.029276955872774124 0.09301824867725372
-0.047255031764507294 -0.017216240987181664 0.08410224318504333
-0.04800385981798172 -0.03417517617344856 0.09245152771472931
-0.04583802446722984 -0.03426754102110863 0.09244882315397263
-0.04586545005440712 -0.03207220882177353 0.09233451634645462
-0.04679011180996895 -0.03171445429325104 0.09182873368263245
-0.04562292993068695 -0.03218206763267517 0.09387913346290588
-0.04657973349094391 -0.026142558082938194 0.09323132783174515
-0.04763124883174896 -0.023180294781923294 0.09009407460689545
-0.04683409258723259 -0.02327916771173477 0.08912621438503265
-0.0475250668823719 -0.02392839454114437 0.08960538357496262
-0.0475250668823719 -0.02392839454114437 0.08960538357496262
-0.04692034050822258 -0.023882294073700905 0.08840033411979675
-0.04546106606721878 -0.03527620807290077 0.09105022996664047
-0.046881355345249176 -0.035081710666418076 0.09200531989336014
-0.0464293397963047 -0.017080815508961678 0.0830807015299797
-0.04601806402206421 -0.029200073331594467 0.09472710639238358
-0.04707660898566246 -0.02984028123319149 0.09461280703544617
-0.04543590918183327 -0.023760948330163956 0.08850846439599991
-0.047995489090681076 -0.02590096928179264 0.09677378088235855
-0.04481421038508415 -0.028444381430745125 0.09320958703756332
-0.045270808041095734 -0.024889448657631874 0.0957319363951683
-0.0475781112909317 -0.034671541303396225 0.09249097853899002
-0.04595179483294487 -0.021868035197257996 0.09223491698503494
-0.045806024223566055 -0.026900717988610268 0.09621046483516693
-0.04638734832406044 -0.024932874366641045 0.09605296701192856
-0.04652118682861328 -0.025909004732966423 0.093863345682621
-0.047174423933029175 -0.03387368097901344 0.09272799640893936
-0.0450371690094471 -0.03336166962981224 0.09206138551235199
-0.046901751309633255 -0.034686002880334854 0.0903317928314209
-0.04443494230508804 -0.033277202397584915 0.09553954750299454
-0.04647780582308769 -0.02315717190504074 0.09229350835084915
-0.04469531029462814 -0.02384529449045658 0.09538356214761734
-0.04392243176698685 -0.029134107753634453 0.09414581954479218
-0.04501113295555115 -0.03358995541930199 0.09290704876184464
-0.044362057000398636 -0.03565637022256851 0.0902106985449791
-0.04342009872198105 -0.03355850279331207 0.09559410065412521
-0.04358242452144623 -0.023758070543408394 0.09482239186763763
-0.0445338636636734 -0.0255290437489748 0.09554693102836609
-0.0445338636636734 -0.0255290437489748 0.09554693102836609
-0.04492747038602829 -0.02356877364218235 0.09135359525680542
-0.04498102515935898 -0.018241383135318756 0.0851363018155098
-0.04282892495393753 -0.018143299967050552 0.0848684310913086
-0.04370599612593651 -0.02098262682557106 0.08519317954778671
-0.0427374467253685 -0.01992354355752468 0.08657164126634598
-0.0433051735162735 -0.02099226601421833 0.08722668141126633
-0.04463828727602959 -0.021709362044930458 0.09276370704174042
-0.04187212139368057 -0.021966131404042244 0.08749393373727798
-0.04163302481174469 -0.015022685751318932 0.08618970215320587
-0.04318178817629814 -0.016618579626083374 0.08465254306793213
-0.04354413226246834 -0.016059497371315956 0.08373159170150757
-0.042777497321367264 -0.015643198043107986 0.08398336172103882
-0.042878638952970505 -0.021010618656873703 0.09332325309515
-0.04228709638118744 -0.014522544108331203 0.08496221899986267
-0.04228709638118744 -0.014522544108331203 0.08496221899986267
-0.04216199740767479 -0.016079138964414597 0.08611233532428741
-0.04216199740767479 -0.016079138964414597 0.08611233532428741
-0.044588204473257065 -0.015400595963001251 0.08489123731851578
-0.041277479380369186 -0.022231433540582657 0.08780203014612198
-0.042844925075769424 -0.01780613884329796 0.08748362213373184
-0.043535392731428146 -0.02062663622200489 0.09246665239334106
-0.043502602726221085 -0.015008180402219296 0.08584464341402054
-0.04385463520884514 -0.016005992889404297 0.08610354363918304
-0.04201766103506088 -0.016084562987089157 0.08875871449708939
-0.041376955807209015 -0.014170569367706776 0.08396325260400772
-0.04264907166361809 -0.01821083575487137 0.0881548747420311
-0.04126832261681557 -0.01693548820912838 0.09055838733911514
-0.041040971875190735 -0.018547367304563522 0.08849923312664032
-0.042687688022851944 -0.01948060654103756 0.09241092205047607
-0.042687688022851944 -0.01948060654103756 0.09241092205047607
-0.042687688022851944 -0.01948060654103756 0.09241092205047607
-0.042687688022851944 -0.01948060654103756 0.09241092205047607
-0.04165767505764961 -0.03884495422244072 0.10674726217985153
-0.04081195965409279 -0.016546281054615974 0.08849023282527924
-0.04236770421266556 -0.021726729348301888 0.08883484452962875
-0.04182259365916252 -0.01642858237028122 0.08821195363998413
-0.04129667207598686 -0.015715541318058968 0.08486448973417282
-0.04006914049386978 -0.03909226506948471 0.10432358831167221
-0.04173939302563667 -0.03839061036705971 0.10498864948749542
-0.04211343824863434 -0.01712547428905964 0.08470562845468521
-0.04211343824863434 -0.01712547428905964 0.08470562845468521
-0.04112454131245613 -0.01888532005250454 0.08810464292764664
-0.04063497111201286 -0.021316781640052795 0.09081615507602692
-0.04029820114374161 -0.03772229328751564 0.10554227232933044
-0.04111986979842186 -0.03557148575782776 0.10499042272567749
-0.039783935993909836 -0.019503017887473106 0.09091629832983017
-0.03970101475715637 -0.04030200466513634 0.09664665907621384
-0.03942575305700302 -0.018025387078523636 0.08762283623218536
-0.03995097801089287 -0.018357044085860252 0.09194854646921158
-0.03821773827075958 -0.03529630973935127 0.09861955046653748
-0.03780193254351616 -0.016190843656659126 0.08843953162431717
-0.039459653198719025 -0.03790837898850441 0.09629424661397934
-0.036997050046920776 -0.045608315616846085 0.10855014622211456
-0.03809976205229759 -0.013873896561563015 0.0898912250995636
-0.04022416099905968 -0.0340762622654438 0.09777288883924484
-0.037409618496894836 -0.037496503442525864 0.09723381698131561
-0.038715772330760956 -0.04647582396864891 0.1082107201218605
-0.03989072144031525 -0.03472535312175751 0.10548534244298935
-0.03662194311618805 -0.018379678949713707 0.08974084258079529
-0.037280820310115814 -0.03461474925279617 0.09857242554426193
-0.03814272582530975 -0.0429949015378952 0.10621818155050278
-0.03912482410669327 -0.04528598114848137 0.10839083790779114
-0.03775744140148163 -0.043867189437150955 0.10602203756570816
-0.03709897771477699 -0.03707532212138176 0.10354667156934738
-0.03743422403931618 -0.0434015654027462 0.10629497468471527
-0.038604315370321274 -0.035511601716279984 0.0991920605301857
-0.037200212478637695 -0.04417227953672409 0.10498713701963425
-0.03725455328822136 -0.015689890831708908 0.08920864760875702
-0.03769126161932945 -0.04384925961494446 0.10398473590612411
-0.03769126161932945 -0.04384925961494446 0.10398473590612411
-0.036967962980270386 -0.04211737960577011 0.09629961848258972
-0.036537911742925644 -0.04339488968253136 0.10969934612512589
-0.037556037306785583 -0.0440044067800045 0.10881268233060837
-0.03640971705317497 -0.04354614391922951 0.10940121859312057
-0.03710207715630531 -0.045157212764024734 0.09132469445466995
-0.03811506927013397 -0.042141955345869064 0.10777135193347931
-0.03660043701529503 -0.03445228561758995 0.10178245604038239
-0.03825843706727028 -0.017004791647195816 0.0885743722319603
-0.03577474504709244 -0.03639296814799309 0.10434181988239288
-0.036949556320905685 -0.03525744006037712 0.0987594947218895
-0.0368533618748188 -0.043802473694086075 0.09288553893566132
-0.03700357303023338 -0.04153398051857948 0.10518248379230499
-0.0377918966114521 -0.04330170527100563 0.0913424864411354
-0.03606628626585007 -0.03358945623040199 0.10464214533567429
-0.035584114491939545 -0.04354565590620041 0.09410899132490158
-0.0371658056974411 -0.03462253510951996 0.10556230694055557
-0.03595903888344765 -0.0346396304666996 0.09816236793994904
-0.035554565489292145 -0.024037206545472145 0.08127287030220032
-0.03707682713866234 -0.02124032750725746 0.08064037561416626
-0.034812163561582565 -0.022869639098644257 0.08046355098485947
-0.0372464619576931 -0.03633957728743553 0.10398762673139572
-0.03581077232956886 -0.021083930507302284 0.0816783457994461
-0.037767063826322556 -0.04121715947985649 0.09424962103366852
-0.03472036123275757 -0.024153947830200195 0.07950164377689362
-0.03576863929629326 -0.021365227177739143 0.0816277414560318
-0.03717038407921791 -0.041200846433639526 0.09550948441028595
-0.03628766909241676 -0.03152209520339966 0.10262887179851532
-0.035421695560216904 -0.02156941220164299 0.08163374662399292
